ply
format ascii 1.0
element vertex 833
property float x
property float y
property float z
end_header
-347.6000 126.5890 655.9000
-348.6300 128.1500 657.8430
-348.6300 129.3360 657.8430
-349.3190 130.7800 659.1440
-349.3190 131.9680 659.1440
-350.7070 133.6850 661.7620
-347.1010 128.0230 657.1940
-347.4440 129.3360 657.8430
-348.1310 130.7800 659.1440
-348.1310 131.9680 659.1440
-349.1670 133.5520 661.1060
-350.2090 135.1460 663.0790
-346.2580 128.1500 657.8430
-346.2580 129.3360 657.8430
-346.6000 130.6500 658.4930
-346.9430 131.9680 659.1440
-347.2860 133.2880 659.7970
-348.3210 134.8780 661.7620
-344.3920 125.5300 656.5460
-344.3920 126.7140 656.5460
-345.0720 128.1500 657.8430
-345.0720 129.3360 657.8430
-345.4130 130.6500 658.4930
-345.7550 131.9680 659.1440
-346.4400 133.4200 660.4510
-347.1280 134.8780 661.7620
-343.2090 125.5300 656.5460
-343.2090 126.7140 656.5460
-343.5470 128.0230 657.1940
-343.8860 129.3360 657.8430
-344.5670 130.7800 659.1440
-344.5670 131.9680 659.1440
-345.2500 133.4200 660.4510
-345.9350 134.8780 661.7620
-341.6890 125.4070 655.9000
-341.6890 126.5890 655.9000
-342.3630 128.0230 657.1940
-342.7010 129.3360 657.8430
-343.3780 130.7800 659.1440
-343.3780 131.9680 659.1440
-343.7180 133.2880 659.7970
-344.4000 134.7440 661.1060
-340.8420 119.6130 656.5460
-340.8420 120.7960 656.5460
-340.8420 121.9800 656.5460
-341.1780 123.2850 657.1940
-341.1780 124.4690 657.1940
-341.1780 125.6540 657.1940
-341.5150 126.9640 657.8430
-341.5150 128.1500 657.8430
-341.8520 129.4630 658.4930
-342.1900 130.7800 659.1440
-342.1900 131.9680 659.1440
-342.5290 133.2880 659.7970
-343.2090 134.7440 661.1060
-339.3240 118.3130 655.9000
-339.9930 119.7310 657.1940
-339.9930 120.9160 657.1940
-340.3290 122.2210 657.8430
-340.3290 123.4070 657.8430
-340.3290 124.5920 657.8430
-340.3290 125.7780 657.8430
-340.6650 127.0890 658.4930
-340.6650 128.2760 658.4930
-341.0020 129.5910 659.1440
-341.3400 130.9090 659.7970
-341.3400 132.0980 659.7970
-342.0170 133.5520 661.1060
-342.3570 134.8780 661.7620
-338.8090 118.5460 657.1940
-339.1430 119.8490 657.8430
-339.4780 121.1540 658.4930
-339.1430 122.2210 657.8430
-339.4780 123.5280 658.4930
-339.4780 124.7150 658.4930
-339.8140 126.0270 659.1440
-339.8140 127.2150 659.1440
-339.8140 128.4030 659.1440
-340.4870 129.8480 660.4510
-340.4870 131.0390 660.4510
-340.4870 132.2290 660.4510
-341.1640 133.6850 661.7620
-341.5030 135.0120 662.4200
-337.9570 118.6630 657.8430
-338.2910 119.9670 658.4930
-338.2910 121.1540 658.4930
-338.2910 122.3410 658.4930
-338.6260 123.6510 659.1440
-338.6260 124.8390 659.1440
-338.9610 126.1520 659.7970
-339.6340 127.5940 661.1060
-339.9710 128.9130 661.7620
-340.6470 130.3650 663.0790
-340.6470 131.5600 663.0790
-340.6470 132.7560 663.0790
-340.9870 134.0840 663.7400
-335.7770 117.1310 655.9000
-336.1080 118.4290 656.5460
-336.7710 119.8490 657.8430
-336.7710 121.0350 657.8430
-337.1040 122.3410 658.4930
-337.4380 123.6510 659.1440
-337.4380 124.8390 659.1440
-338.1060 126.2770 660.4510
-339.1150 127.8470 662.4200
-339.7900 129.2990 663.7400
-340.1290 130.6250 664.4010
-340.1290 131.8230 664.4010
-340.4690 133.1530 665.0640
-341.4910 134.7550 667.0620
-335.2550 118.5460 657.1940
-335.5860 119.8490 657.8430
-335.5860 121.0350 657.8430
-335.5860 122.2210 657.8430
-336.2490 123.6510 659.1440
-336.2490 124.8390 659.1440
-336.5820 126.1520 659.7970
-338.2570 127.9750 663.0790
-338.5940 129.2990 663.7400
-339.2700 130.7550 665.0640
-339.9480 132.2180 666.3950
-339.9480 133.4190 666.3950
-340.6290 134.8900 667.7300
-333.4120 121.8600 655.9000
-334.7300 123.5280 658.4930
-333.4120 124.2240 655.9000
-337.3970 128.1020 663.7400
-338.4090 129.6860 665.7290
-339.0860 131.1480 667.0620
-339.0860 132.3510 667.0620
-339.0860 133.5530 667.0620
-339.4260 134.8900 667.7300
-336.8720 129.5570 665.0640
-337.8840 131.1480 667.0620
-337.8840 132.3510 667.0620
-337.8840 133.5530 667.0620
-338.5610 135.0260 668.4000
-332.0280 128.1500 657.8430
-335.3380 130.6250 664.4010
-335.6730 131.9540 665.0640
-336.6810 133.5530 667.0620
-337.0190 134.8900 667.7300
-329.8650 127.7710 655.9000
-334.1410 130.6250 664.4010
-334.4740 131.9540 665.0640
-335.8150 133.6870 667.7300
-336.1520 135.0260 668.4000
-332.6120 131.6910 663.7400
-333.9420 133.4190 666.3950
-334.2760 134.7550 667.0620
-331.7460 131.8230 664.4010
-332.7410 133.4190 666.3950
-333.4080 134.8900 667.7300
-326.9620 130.3930 657.1940
-330.2190 132.8880 663.7400
-330.2190 134.0840 663.7400
-329.8900 135.1460 663.0790
-325.4560 130.2640 656.5460
-327.7170 132.3610 661.1060
-328.3680 133.8180 662.4200
-328.6950 135.1460 663.0790
-324.2730 130.2640 656.5460
-325.5560 131.9680 659.1440
-326.5250 133.5520 661.1060
-327.5000 135.1460 663.0790
-322.7720 130.1360 655.9000
-324.3680 131.9680 659.1440
-324.6890 133.2880 659.7970
-325.6560 134.8780 661.7620
-322.8600 131.8370 658.4930
-323.5000 133.2880 659.7970
-324.7860 135.0120 662.4200
-321.3560 130.5210 657.8430
-321.9920 131.9680 659.1440
-322.6300 133.4200 660.4510
-323.5920 135.0120 662.4200
-320.1700 130.5210 657.8430
-320.4860 131.8370 658.4930
-320.8030 133.1560 659.1440
-321.1210 134.4770 659.7970
-318.6700 130.3930 657.1940
-318.9840 131.7070 657.8430
-319.2990 133.0240 658.4930
-319.2990 134.2110 658.4930
-317.4850 130.3930 657.1940
-317.7980 131.7070 657.8430
-317.7980 132.8930 657.8430
-317.7980 134.0790 657.8430
-316.3000 130.3930 657.1940
-316.6130 131.7070 657.8430
-316.3000 132.7620 657.1940
-316.6130 134.0790 657.8430
-315.1160 130.3930 657.1940
-315.1160 131.5770 657.1940
-315.1160 132.7620 657.1940
-315.4270 134.0790 657.8430
-313.3130 128.9540 655.9000
-313.9310 130.3930 657.1940
-314.2410 131.7070 657.8430
-313.9310 132.7620 657.1940
-313.9310 133.9470 657.1940
-312.1310 130.1360 655.9000
-312.7460 131.5770 657.1940
-312.7460 132.7620 657.1940
-312.7460 133.9470 657.1940
-310.9480 131.3180 655.9000
-311.2550 132.6310 656.5460
-311.5620 133.9470 657.1940
-310.0710 132.6310 656.5460
-310.6840 134.0790 657.8430
-308.8880 131.4480 656.5460
-309.1920 132.7620 657.1940
-309.8030 134.2110 658.4930
-307.7040 131.4480 656.5460
-308.3120 132.8930 657.8430
-308.6170 134.2110 658.4930
-306.2190 130.1360 655.9000
-306.8230 131.5770 657.1940
-307.1260 132.8930 657.8430
-308.3440 134.6100 660.4510
-305.6390 129.2080 657.1940
-305.6390 130.3930 657.1940
-306.2430 131.8370 658.4930
-306.2430 133.0240 658.4930
-308.0690 135.0120 662.4200
-303.8550 126.5890 655.9000
-304.1540 127.8970 656.5460
-304.7540 129.3360 657.8430
-305.0560 130.6500 658.4930
-305.0560 131.8370 658.4930
-305.3570 133.1560 659.1440
-306.8750 135.0120 662.4200
-302.6720 120.6770 655.9000
-302.6720 121.8600 655.9000
-302.6720 124.2240 655.9000
-303.2690 125.6540 657.1940
-303.2690 126.8390 657.1940
-303.5690 128.1500 657.8430
-304.1690 129.5910 659.1440
-304.4700 130.9090 659.7970
-305.0740 132.3610 661.1060
-305.6810 133.8180 662.4200
-301.4900 119.4950 655.9000
-301.7870 120.7960 656.5460
-302.0850 122.1000 657.1940
-302.0850 123.2850 657.1940
-302.0850 124.4690 657.1940
-302.3830 125.7780 657.8430
-302.6820 127.0890 658.4930
-302.9810 128.4030 659.1440
-303.5820 129.8480 660.4510
-304.1840 131.2990 661.7620
-304.7900 132.7560 663.0790
-305.0930 134.0840 663.7400
-300.3080 119.4950 655.9000
-300.9000 120.9160 657.1940
-300.9000 122.1000 657.1940
-300.9000 123.2850 657.1940
-301.1970 124.5920 657.8430
-301.1970 125.7780 657.8430
-301.4950 127.0890 658.4930
-301.7930 128.4030 659.1440
-302.3910 129.8480 660.4510
-303.2930 131.4300 662.4200
-303.5950 132.7560 663.0790
-304.2000 134.2180 664.4010
-299.4200 120.7960 656.5460
-299.4200 121.9800 656.5460
-299.4200 123.1630 656.5460
-299.7150 124.4690 657.1940
-300.0110 125.7780 657.8430
-300.3080 127.0890 658.4930
-300.6050 128.4030 659.1440
-301.4990 129.9770 661.1060
-302.0990 131.4300 662.4200
-302.7000 132.8880 663.7400
-303.0020 134.2180 664.4010
-299.1210 125.9020 658.4930
-299.1210 127.0890 658.4930
-299.4160 128.4030 659.1440
-300.3080 129.9770 661.1060
-301.2040 131.5600 663.0790
-301.5040 132.8880 663.7400
-301.8050 134.2180 664.4010
-297.6400 125.7780 657.8430
-297.9340 127.0890 658.4930
-298.2280 128.4030 659.1440
-298.5240 129.7200 659.7970
-300.0090 131.5600 663.0790
-300.3080 132.8880 663.7400
-300.6070 134.2180 664.4010
-296.4540 125.7780 657.8430
-296.7470 127.0890 658.4930
-297.0400 128.4030 659.1440
-297.0400 129.5910 659.1440
-298.2200 131.2990 661.7620
-298.5170 132.6240 662.4200
-299.1110 134.0840 663.7400
-295.5600 127.0890 658.4930
-295.5600 128.2760 658.4930
-295.5600 129.4630 658.4930
-295.8520 130.7800 659.1440
-296.1450 132.0980 659.7970
-296.4380 133.4200 660.4510
-297.3220 135.0120 662.4200
-294.0820 128.1500 657.8430
-294.0820 129.3360 657.8430
-294.3730 130.6500 658.4930
-294.6640 131.9680 659.1440
-294.6640 133.1560 659.1440
-295.2480 134.6100 660.4510
-292.3190 127.8970 656.5460
-292.3190 129.0810 656.5460
-292.8960 130.5210 657.8430
-293.1860 131.8370 658.4930
-293.1860 133.0240 658.4930
-293.1860 134.2110 658.4930
-291.1360 129.0810 656.5460
-291.7100 130.5210 657.8430
-291.9990 131.8370 658.4930
-291.9990 133.0240 658.4930
-291.9990 134.2110 658.4930
-290.5250 130.5210 657.8430
-290.8120 131.8370 658.4930
-290.8120 133.0240 658.4930
-291.0990 134.3440 659.1440
-289.0530 130.3930 657.1940
-289.6250 131.8370 658.4930
-289.6250 133.0240 658.4930
-289.9110 134.3440 659.1440
-287.5850 130.2640 656.5460
-288.1530 131.7070 657.8430
-288.4380 133.0240 658.4930
-288.7230 134.3440 659.1440
-286.4020 130.2640 656.5460
-286.9670 131.7070 657.8430
-287.2510 133.0240 658.4930
-287.5350 134.3440 659.1440
-285.2180 130.2640 656.5460
-285.7810 131.7070 657.8430
-285.7810 132.8930 657.8430
-286.0640 134.2110 658.4930
-284.5960 130.5210 657.8430
-284.8770 131.8370 658.4930
-284.8770 133.0240 658.4930
-285.1590 134.3440 659.1440
-283.1300 130.3930 657.1940
-283.4100 131.7070 657.8430
-283.6900 133.0240 658.4930
-283.9700 134.3440 659.1440
-281.3910 131.3180 655.9000
-281.6680 132.6310 656.5460
-282.5030 134.2110 658.4930
-280.4840 130.2640 656.5460
-280.4840 131.4480 656.5460
-280.4840 132.6310 656.5460
-281.0380 134.0790 657.8430
-279.3010 130.2640 656.5460
-279.3010 131.4480 656.5460
-279.3010 132.6310 656.5460
-279.8520 134.0790 657.8430
-277.8440 132.5010 655.9000
-278.6660 134.0790 657.8430
-276.9340 130.2640 656.5460
-276.9340 131.4480 656.5460
-277.2070 132.7620 657.1940
-277.4810 134.0790 657.8430
-275.4790 130.1360 655.9000
-275.4790 131.3180 655.9000
-275.7500 132.6310 656.5460
-275.7500 133.8150 656.5460
-274.2970 131.3180 655.9000
-274.5670 132.6310 656.5460
-274.5670 133.8150 656.5460
-273.1140 131.3180 655.9000
-273.3830 132.6310 656.5460
-273.3830 133.8150 656.5460
-272.4680 131.5770 657.1940
-272.7370 132.8930 657.8430
-273.0070 134.2110 658.4930
-271.5520 124.5920 657.8430
-271.0160 127.8970 656.5460
-270.7500 128.9540 655.9000
-270.7500 130.1360 655.9000
-271.2840 131.5770 657.1940
-271.8200 133.0240 658.4930
-272.0890 134.3440 659.1440
-269.8330 123.1630 656.5460
-270.6330 124.7150 658.4930
-270.3660 125.7780 657.8430
-270.3660 126.9640 657.8430
-270.3660 128.1500 657.8430
-270.3660 129.3360 657.8430
-270.0990 130.3930 657.1940
-270.3660 131.7070 657.8430
-270.6330 133.0240 658.4930
-271.9770 134.8780 661.7620
-268.6500 121.9800 656.5460
-269.1800 123.4070 657.8430
-269.4460 124.7150 658.4930
-269.4460 125.9020 658.4930
-269.4460 127.0890 658.4930
-269.4460 128.2760 658.4930
-269.4460 129.4630 658.4930
-268.9150 130.3930 657.1940
-269.4460 131.8370 658.4930
-269.7120 133.1560 659.1440
-271.3230 135.1460 663.0790
-267.9940 122.2210 657.8430
-267.9940 123.4070 657.8430
-268.2590 124.7150 658.4930
-268.2590 125.9020 658.4930
-268.2590 127.0890 658.4930
-268.2590 128.2760 658.4930
-268.5240 129.5910 659.1440
-268.2590 130.6500 658.4930
-268.7900 132.0980 659.7970
-269.5910 133.6850 661.7620
-266.5450 120.9160 657.1940
-266.8080 122.2210 657.8430
-267.0720 123.5280 658.4930
-267.0720 124.7150 658.4930
-267.0720 125.9020 658.4930
-267.0720 127.0890 658.4930
-267.3360 128.4030 659.1440
-268.3980 130.1060 661.7620
-268.6650 131.4300 662.4200
-269.2000 132.8880 663.7400
-269.4680 134.2180 664.4010
-265.0990 120.7960 656.5460
-265.8850 122.3410 658.4930
-265.8850 123.5280 658.4930
-266.1480 124.8390 659.1440
-266.1480 126.0270 659.1440
-266.4110 127.3410 659.7970
-266.6760 128.6580 660.4510
-268.0040 130.4950 663.7400
-268.0040 131.6910 663.7400
-268.5390 133.1530 665.0640
-268.5390 134.3520 665.0640
-264.4370 124.5920 657.8430
-264.9600 126.0270 659.1440
-265.2220 127.3410 659.7970
-266.5420 129.1700 663.0790
-267.0730 130.6250 664.4010
-267.3400 131.9540 665.0640
-268.4110 133.6870 667.7300
-268.4110 134.8900 667.7300
-263.5110 125.9020 658.4930
-263.5110 127.0890 658.4930
-263.5110 128.2760 658.4930
-265.6110 130.4950 663.7400
-265.8750 131.8230 664.4010
-267.7440 133.9550 669.0710
-267.4760 135.0260 668.4000
-261.2910 125.4070 655.9000
-261.8070 126.8390 657.1940
-261.2910 127.7710 655.9000
-264.4140 130.4950 663.7400
-262.0650 130.5210 657.8430
-266.0040 133.6870 667.7300
-266.2710 135.0260 668.4000
-260.6220 129.2080 657.1940
-260.8790 130.5210 657.8430
-261.1370 131.8370 658.4930
-264.0070 134.4860 665.7290
-258.9270 128.9540 655.9000
-259.6930 130.5210 657.8430
-259.6930 131.7070 657.8430
-262.2830 134.2180 664.4010
-257.9980 130.2640 656.5460
-257.9980 131.4480 656.5460
-256.8150 131.4480 656.5460
-257.0680 132.7620 657.1940
-257.3220 134.0790 657.8430
-255.6310 131.4480 656.5460
-256.1360 132.8930 657.8430
-256.1360 134.0790 657.8430
-254.4480 131.4480 656.5460
-254.9500 132.8930 657.8430
-255.2020 134.2110 658.4930
-253.2640 131.4480 656.5460
-253.7640 132.8930 657.8430
-254.0150 134.2110 658.4930
-252.3290 131.5770 657.1940
-252.8280 133.0240 658.4930
-253.0780 134.3440 659.1440
-251.6410 133.0240 658.4930
-251.8900 134.3440 659.1440
-250.4540 133.0240 658.4930
-250.7020 134.3440 659.1440
-248.7760 131.5770 657.1940
-249.2670 133.0240 658.4930
-249.5140 134.3440 659.1440
-248.0800 133.0240 658.4930
-248.0800 134.2110 658.4930
-246.6490 132.8930 657.8430
-246.8930 134.2110 658.4930
-245.4640 132.8930 657.8430
-245.7060 134.2110 658.4930
-243.5570 131.3180 655.9000
-244.2780 132.8930 657.8430
-244.5190 134.2110 658.4930
-242.6130 131.4480 656.5460
-243.0920 132.8930 657.8430
-243.3320 134.2110 658.4930
-241.1920 130.1360 655.9000
-241.6680 131.5770 657.1940
-242.1450 133.0240 658.4930
-242.1450 134.2110 658.4930
-240.4830 130.3930 657.1940
-240.7200 131.7070 657.8430
-240.9580 133.0240 658.4930
-241.1970 134.3440 659.1440
-239.0630 130.2640 656.5460
-239.5350 131.7070 657.8430
-239.7710 133.0240 658.4930
-240.0080 134.3440 659.1440
-238.1140 130.3930 657.1940
-238.3490 131.7070 657.8430
-238.5840 133.0240 658.4930
-238.8200 134.3440 659.1440
-236.4630 128.9540 655.9000
-237.1630 130.5210 657.8430
-237.3970 131.8370 658.4930
-237.6320 133.1560 659.1440
-237.8670 134.4770 659.7970
-235.5120 127.8970 656.5460
-236.2100 129.4630 658.4930
-236.2100 130.6500 658.4930
-236.2100 131.8370 658.4930
-236.4440 133.1560 659.1440
-236.6780 134.4770 659.7970
-234.0980 123.0420 655.9000
-235.0230 127.0890 658.4930
-235.0230 128.2760 658.4930
-235.0230 129.4630 658.4930
-235.0230 130.6500 658.4930
-235.2560 131.9680 659.1440
-235.4890 133.2880 659.7970
-235.7220 134.6100 660.4510
-233.3750 122.1000 657.1940
-233.6060 123.4070 657.8430
-233.6060 124.5920 657.8430
-233.6060 125.7780 657.8430
-233.6060 126.9640 657.8430
-233.8360 128.2760 658.4930
-234.0680 129.5910 659.1440
-234.0680 130.7800 659.1440
-234.2990 132.0980 659.7970
-234.7640 133.5520 661.1060
-235.2310 135.0120 662.4200
-232.6490 121.1540 658.4930
-233.1100 122.5840 659.7970
-233.3410 123.8960 660.4510
-233.1100 124.9620 659.7970
-233.5730 126.4020 661.1060
-233.3410 127.4670 660.4510
-233.1100 128.5300 659.7970
-233.1100 129.7200 659.7970
-233.3410 131.0390 660.4510
-234.0370 132.6240 662.4200
-234.5030 134.0840 663.7400
-230.7780 118.4290 656.5460
-230.7780 119.6130 656.5460
-231.4620 121.1540 658.4930
-231.6910 122.4620 659.1440
-231.9210 123.7730 659.7970
-231.6910 124.8390 659.1440
-232.3810 126.4020 661.1060
-232.3810 127.5940 661.1060
-233.0750 129.1700 663.0790
-232.8430 130.2360 662.4200
-233.0750 131.5600 663.0790
-233.3070 132.8880 663.7400
-233.3070 134.0840 663.7400
-229.5950 117.2460 656.5460
-230.0480 118.6630 657.8430
-230.0480 119.8490 657.8430
-230.5030 121.2740 659.1440
-230.7310 122.5840 659.7970
-230.9600 123.8960 660.4510
-230.9600 125.0860 660.4510
-231.4190 126.5280 661.7620
-231.6490 127.8470 662.4200
-232.1100 129.2990 663.7400
-231.8790 130.3650 663.0790
-232.1100 131.6910 663.7400
-232.3420 133.0200 664.4010
-232.8060 134.4860 665.7290
-228.4110 117.2460 656.5460
-228.8620 118.6630 657.8430
-228.8620 119.8490 657.8430
-229.5420 121.3940 659.7970
-229.7700 122.7050 660.4510
-230.2260 124.1420 661.7620
-230.2260 125.3350 661.7620
-230.6840 126.7790 663.0790
-230.6840 127.9750 663.0790
-230.9140 129.2990 663.7400
-230.9140 130.4950 663.7400
-231.1440 131.8230 664.4010
-231.6060 133.2860 665.7290
-232.3020 134.8900 667.7300
-227.6760 118.6630 657.8430
-227.9010 119.9670 658.4930
-228.5790 121.5150 660.4510
-229.0330 122.9490 661.7620
-229.0330 124.1420 661.7620
-229.2610 125.4590 662.4200
-229.4890 126.7790 663.0790
-229.7170 128.1020 663.7400
-230.1760 129.5570 665.0640
-230.1760 130.7550 665.0640
-230.1760 131.9540 665.0640
-230.4060 133.2860 665.7290
-231.0980 134.8900 667.7300
-225.8220 119.4950 655.9000
-227.1630 121.3940 659.7970
-227.3890 122.7050 660.4510
-227.8400 124.1420 661.7620
-228.0670 125.4590 662.4200
-228.2940 126.7790 663.0790
-228.5210 128.1020 663.7400
-228.9770 129.5570 665.0640
-228.9770 130.7550 665.0640
-229.2060 132.0860 665.7290
-229.6650 133.5530 667.0620
-230.1250 135.0260 668.4000
-225.9740 121.3940 659.7970
-226.6470 122.9490 661.7620
-226.6470 124.1420 661.7620
-226.8730 125.4590 662.4200
-227.0980 126.7790 663.0790
-227.3240 128.1020 663.7400
-227.7780 129.5570 665.0640
-228.0060 130.8860 665.7290
-228.0060 132.0860 665.7290
-228.4620 133.5530 667.0620
-228.9210 135.0260 668.4000
-224.5620 122.4620 659.1440
-225.0070 123.8960 660.4510
-225.2310 125.2100 661.1060
-226.1280 126.9060 663.7400
-226.1280 128.1020 663.7400
-227.2600 129.9460 667.0620
-227.2600 131.1480 667.0620
-227.2600 132.3510 667.0620
-227.4880 133.6870 667.7300
-227.7160 135.0260 668.4000
-223.1530 122.3410 658.4930
-223.3740 123.6510 659.1440
-223.3740 124.8390 659.1440
-223.3740 126.0270 659.1440
-223.8170 127.4670 660.4510
-225.1560 129.4270 664.4010
-225.1560 130.6250 664.4010
-225.3810 131.9540 665.0640
-226.2840 133.6870 667.7300
-226.7380 135.1610 669.0710
-221.7470 123.4070 657.8430
-221.9660 124.7150 658.4930
-222.1860 126.0270 659.1440
-223.0690 127.7200 661.7620
-223.7350 129.2990 663.7400
-223.9580 130.6250 664.4010
-223.9580 131.8230 664.4010
-224.6300 133.4190 666.3950
-225.3060 135.0260 668.4000
-220.1270 124.3470 656.5460
-220.5620 125.7780 657.8430
-220.9980 127.2150 659.1440
-222.5390 129.2990 663.7400
-222.5390 130.4950 663.7400
-222.7610 131.8230 664.4010
-222.9830 133.1530 665.0640
-223.4290 134.6210 666.3950
-221.3420 130.4950 663.7400
-221.3420 131.6910 663.7400
-221.5630 133.0200 664.4010
-221.5630 134.2180 664.4010
-218.6220 130.7800 659.1440
-220.3650 133.0200 664.4010
-220.3650 134.2180 664.4010
-217.2190 130.6500 658.4930
-218.7310 132.7560 663.0790
-218.9490 134.0840 663.7400
-215.1810 128.9540 655.9000
-216.0320 130.6500 658.4930
-217.7530 132.8880 663.7400
-217.5360 133.9510 663.0790
-213.9990 127.7710 655.9000
-214.8450 129.4630 658.4930
-215.4830 131.0390 660.4510
-216.3410 132.7560 663.0790
-216.3410 133.9510 663.0790
-216.3410 135.1460 663.0790
-213.0260 125.5300 656.5460
-213.0260 126.7140 656.5460
-213.4470 128.1500 657.8430
-213.8690 129.5910 659.1440
-214.7180 131.2990 661.7620
-215.1460 132.7560 663.0790
-214.9320 133.8180 662.4200
-215.1460 135.1460 663.0790
-211.6340 124.2240 655.9000
-211.8430 125.5300 656.5460
-211.8430 126.7140 656.5460
-212.2610 128.1500 657.8430
-212.6810 129.5910 659.1440
-213.3140 131.1690 661.1060
-213.9500 132.7560 663.0790
-213.9500 133.9510 663.0790
-210.6590 124.3470 656.5460
-210.8670 125.6540 657.1940
-211.0750 126.9640 657.8430
-211.2840 128.2760 658.4930
-211.9120 129.8480 660.4510
-212.3330 131.2990 661.7620
-212.7550 132.7560 663.0790
-212.7550 133.9510 663.0790
-209.4760 124.3470 656.5460
-209.6820 125.6540 657.1940
-210.0970 127.0890 658.4930
-210.7210 128.6580 660.4510
-211.1400 130.1060 661.7620
-211.3500 131.4300 662.4200
-211.5600 132.7560 663.0790
-211.5600 133.9510 663.0790
-208.4980 124.4690 657.1940
-208.7030 125.7780 657.8430
-208.9100 127.0890 658.4930
-209.5310 128.6580 660.4510
-209.9470 130.1060 661.7620
-210.1560 131.4300 662.4200
-210.3650 132.7560 663.0790
-210.3650 133.9510 663.0790
-207.3130 124.4690 657.1940
-207.7230 125.9020 658.4930
-207.9280 127.2150 659.1440
-208.5470 128.7850 661.1060
-208.7540 130.1060 661.7620
-209.1690 131.5600 663.0790
-209.1690 132.7560 663.0790
-209.1690 133.9510 663.0790
-205.9250 123.1630 656.5460
-206.5360 124.7150 658.4930
-206.7400 126.0270 659.1440
-207.1500 127.4670 660.4510
-207.5610 128.9130 661.7620
-207.5610 130.1060 661.7620
-207.9740 131.5600 663.0790
-207.9740 132.7560 663.0790
-207.9740 133.9510 663.0790
-204.7420 123.1630 656.5460
-205.5520 124.8390 659.1440
-205.9590 126.2770 660.4510
-206.5730 127.8470 662.4200
-206.3680 128.9130 661.7620
-206.3680 130.1060 661.7620
-206.5730 131.4300 662.4200
-206.7790 132.7560 663.0790
-206.7790 133.9510 663.0790
-203.7590 122.1000 657.1940
-203.9600 123.4070 657.8430
-204.9720 125.2100 661.1060
-205.3790 126.6530 662.4200
-205.3790 127.8470 662.4200
-205.3790 129.0410 662.4200
-205.3790 130.2360 662.4200
-205.5840 131.5600 663.0790
-205.7880 132.8880 663.7400
-205.9940 134.2180 664.4010
-202.7740 122.2210 657.8430
-202.9750 123.5280 658.4930
-204.3880 125.5840 663.0790
-204.5920 126.9060 663.7400
-204.3880 127.9750 663.0790
-204.3880 129.1700 663.0790
-204.3880 130.3650 663.0790
-204.5920 131.6910 663.7400
-204.5920 132.8880 663.7400
-204.7960 134.2180 664.4010
-201.1910 120.7960 656.5460
-201.7880 122.3410 658.4930
-201.9870 123.6510 659.1440
-202.7900 125.3350 661.7620
-203.1930 126.7790 663.0790
-203.1930 127.9750 663.0790
-203.1930 129.1700 663.0790
-203.1930 130.3650 663.0790
-203.3960 131.6910 663.7400
-203.5980 133.0200 664.4010
-203.8020 134.3520 665.0640
-199.8110 119.4950 655.9000
-200.2050 120.9160 657.1940
-200.7990 122.4620 659.1440
-200.7990 123.6510 659.1440
-201.5970 125.3350 661.7620
-201.9980 126.7790 663.0790
-202.1990 128.1020 663.7400
-202.1990 129.2990 663.7400
-202.1990 130.4950 663.7400
-202.4010 131.8230 664.4010
-202.6030 133.1530 665.0640
-202.6030 134.3520 665.0640
-199.0200 119.7310 657.1940
-199.2170 121.0350 657.8430
-199.4140 122.3410 658.4930
-199.6110 123.6510 659.1440
-200.6030 125.4590 662.4200
-201.0030 126.9060 663.7400
-201.0030 128.1020 663.7400
-201.0030 129.2990 663.7400
-201.0030 130.4950 663.7400
-201.2030 131.8230 664.4010
-201.4040 133.1530 665.0640
-201.6050 134.4860 665.7290
-199.4090 125.4590 662.4200
-199.8060 126.9060 663.7400
-199.8060 128.1020 663.7400
-200.0050 129.4270 664.4010
-199.8060 130.4950 663.7400
-200.0050 131.8230 664.4010
-200.2050 133.1530 665.0640
-200.4050 134.4860 665.7290
-198.8080 127.0320 664.4010
-198.8080 128.2300 664.4010
-198.8080 129.4270 664.4010
-198.8080 130.6250 664.4010
-199.0060 131.9540 665.0640
-199.4040 133.4190 666.3950
-199.4040 134.6210 666.3950
